76.546021 3.140033 71.376488
-1e-06 -0.010531 -0.999945
76.677292 3.071921 71.377205
-25.676973 -2.406596 71.383385
-0.0 0.008657 -0.999962
-25.568029 -2.434613 71.383156
-72.677307 -2.618186 71.381584
0.0 0.008171 -0.999967
71.750145 1.299182 71.390335
1e-06 0.008267 -0.999966
-25.457933 -2.4577 71.382965
1e-06 0.008429 -0.999964
-25.34691 -2.475811 71.382812
-1e-06 0.009081 -0.999959
-72.78997 -2.713975 71.380714
3e-06 0.008181 -0.999967
-25.235184 -2.488909 71.382706
-2e-06 0.009315 -0.999957
-72.906586 -2.804916 71.379868
-5e-06 0.009684 -0.999953
-73.026939 -2.890848 71.379036
5e-06 0.008584 -0.999963
-25.12298 -2.496968 71.382637
-6e-06 0.009928 -0.999951
-73.150818 -2.971618 71.378235
-9e-06 0.010227 -0.999948
-73.277992 -3.047081 71.377464
-1.2e-05 0.010482 -0.999945
-73.408249 -3.117104 71.376732
-1.5e-05 0.010683 -0.999943
-73.541351 -3.181561 71.376045
-1.9e-05 0.010946 -0.99994
-73.677055 -3.24034 71.375404
-2.2e-05 0.011141 -0.999938
-73.815117 -3.293333 71.374817
-2.3e-05 0.011242 -0.999937
-73.955299 -3.340447 71.37429
-3e-06 0.010055 -0.999949
-25.010525 -2.499972 71.382607
-2.9e-05 0.011595 -0.999933
-74.097351 -3.381598 71.373817
-3e-05 0.011638 -0.999932
-74.241013 -3.416711 71.373413
-3.2e-05 0.011728 -0.999931
-74.386024 -3.445724 71.373077
-3.5e-05 0.011903 -0.999929
-74.532135 -3.468586 71.37281
-4.2e-05 0.012271 -0.999925
-74.679077 -3.485255 71.372612
-1e-06 0.002804 -0.999996
16.051144 -0.958016 71.391647
-22.660353 -0.880615 71.391884
-22.70236 -0.984962 71.391548
-22.749018 -1.087317 71.39119
-1e-06 0.003886 -0.999992
-22.800232 -1.187472 71.3908
-2e-06 0.002529 -0.999997
-3e-06 -0.017024 -0.999855
167.418625 4.849414 71.353271
-2e-06 -0.016581 -0.999862
128.586151 4.81035 71.353981
-2e-06 -0.016006 -0.999872
128.808426 4.636358 71.356766
2e-06 -0.003984 -0.999992
71.698151 1.160739 71.390915
33.948856 0.958016 71.391647
1e-06 -0.004189 -0.999991
-1e-06 -0.010467 -0.999945
119.786026 2.968515 71.378235
-1e-06 -0.010368 -0.999946
76.805557 2.998325 71.377968
-1e-06 -0.009954 -0.99995
76.930603 2.919376 71.378754
-1e-06 -0.009791 -0.999952
77.0522 2.835214 71.379578
-0.002179 -0.020148 -0.999795
182.281235 5.289757 71.345741
71.652054 1.020224 71.391434
71.611931 0.877887 71.391891
-1e-06 -0.009638 -0.999954
119.652161 2.719992 71.38063
-1e-06 -0.009492 -0.999955
77.170135 2.745989 71.380424
-1e-06 -0.009078 -0.999959
77.284195 2.65186 71.381279
77.394165 2.552995 71.382156
-3e-06 -0.015805 -0.999875
167.197266 4.484575 71.359039
-2e-06 -0.015403 -0.999881
129.022263 4.452101 71.359604
-2e-06 -0.01474 -0.999891
129.227188 4.257987 71.362465
-1e-06 0.004137 -0.999991
16.106632 -1.381155 71.389961
-22.855894 -1.285225 71.390396
-22.915894 -1.380379 71.389961
0.0 0.004791 -0.999988
-22.980108 -1.472742 71.389519
-2e-06 0.003984 -0.999992
-1e-06 0.005122 -0.999987
-23.048407 -1.562126 71.389061
2e-06 -0.002529 -0.999997
71.577858 0.733983 71.392288
33.984219 0.532719 71.392723
1e-06 -0.002757 -0.999996
-0.002517 -0.019054 -0.999815
182.523773 4.938653 71.351822
-1e-06 -0.008811 -0.999961
119.530128 2.465452 71.382874
-0.0 -0.00841 -0.999965
77.49987 2.449571 71.383026
-1e-06 -0.008139 -0.999967
77.601105 2.341773 71.383904
1e-06 -0.002259 -0.999997
71.549896 0.588767 71.392616
-3e-06 -0.014567 -0.999894
166.993439 4.109658 71.364502
-1e-06 -0.014094 -0.999901
129.42276 4.054447 71.365334
-3e-06 -0.013356 -0.999911
129.608536 3.841932 71.368172
1e-06 -0.001347 -0.999999
71.528091 0.4425 71.392868
33.996056 0.266477 71.393082
-1e-06 -0.007922 -0.999969
119.420204 2.205457 71.384933
-1e-06 -0.007767 -0.99997
77.697693 2.229794 71.384773
77.789474 2.113834 71.38562
-2e-06 0.005487 -0.999985
16.182123 -1.801183 71.387688
-23.120653 -1.648351 71.388588
-1e-06 0.005707 -0.999984
-23.196699 -1.731242 71.388115
-0.0 0.005959 -0.999982
-23.276394 -1.81063 71.387642
-23.359577 -1.886354 71.387169
-1e-06 0.00658 -0.999978
-23.446077 -1.958259 71.386696
-2e-06 0.005412 -0.999985
71.512497 0.29544 71.393051
1e-06 -0.000458 -1.0
71.503128 0.147853 71.393166
34.0 -0.0 71.393204
-1e-06 -0.007056 -0.999975
119.322617 1.940582 71.386803
-1e-06 -0.006946 -0.999976
77.876274 1.994102 71.386452
77.957939 1.870811 71.38726
-1e-06 -0.006146 -0.999981
78.034332 1.744181 71.388039
-1e-06 -0.012634 -0.99992
166.807587 3.725505 71.369614
129.784119 3.620914 71.370964
-3e-06 -0.013304 -0.999911
71.5 -0.0 71.393204
-3e-06 0.006741 -0.999977
16.277445 -2.217157 71.38485
-23.535727 -2.0262 71.386238
-2e-06 0.006934 -0.999976
-23.62834 -2.090037 71.385796
-1e-06 0.007169 -0.999974
-23.723732 -2.14964 71.385368
-1e-06 0.00732 -0.999973
-23.821712 -2.204888 71.384964
-1e-06 0.007663 -0.999971
-23.922081 -2.255669 71.384575
-24.024637 -2.30188 71.384224
-1e-06 0.007899 -0.999969
-24.129169 -2.343428 71.383896
-2e-06 0.006822 -0.999977
71.501411 -0.099515 71.393188
-1e-06 -0.006122 -0.999981
119.237595 1.671412 71.388451
78.105309 1.614439 71.388779
-1e-06 -0.005235 -0.999986
78.170746 1.481816 71.389473
2e-06 0.000733 -1.0
71.505661 -0.198949 71.393135
33.98988 -0.426647 71.392891
1e-06 0.000537 -1.0
-2e-06 -0.011859 -0.99993
166.640167 3.332978 71.374313
129.949112 3.391881 71.37368
-1e-06 -0.011095 -0.999938
130.103165 3.155344 71.376305
-3e-06 -0.011971 -0.999928
0.002272 0.018243 -0.999831
-200.0 -10.761095 71.196861
4.5e-05 0.028173 -0.999603
-174.891403 -5.999017 71.332199
-175.173676 -5.997486 71.33223
0.000343 0.026619 -0.999646
-175.455582 -5.982679 71.332527
0.000527 0.025673 -0.99967
-175.736465 -5.954629 71.333099
0.000691 0.024846 -0.999691
-176.015732 -5.913398 71.333931
0.000829 0.024166 -0.999708
-176.29274 -5.859077 71.335014
0.000949 0.023587 -0.999721
-176.566895 -5.791787 71.336342
0.001055 0.023084 -0.999733
-176.83757 -5.711678 71.337906
0.001175 0.022538 -0.999745
-177.104187 -5.618927 71.339684
0.001284 0.022051 -0.999756
-177.366135 -5.51374 71.341667
0.001395 0.02157 -0.999766
-177.622864 -5.396351 71.343842
0.001529 0.021013 -0.999778
-177.873764 -5.267018 71.346176
0.001655 0.020507 -0.999788
-178.118301 -5.126029 71.348663
0.001802 0.019936 -0.9998
-178.355942 -4.973694 71.351273
0.001961 0.019342 -0.999811
-178.586151 -4.81035 71.353981
0.002132 0.018726 -0.999822
1e-06 0.000932 -1.0
71.517189 -0.346384 71.392998
-1e-06 -0.005228 -0.999986
119.165337 1.398541 71.389877
78.230522 1.346549 71.390121
-0.0 -0.004323 -0.999991
78.284531 1.208879 71.390717
71.534935 -0.493199 71.392792
-3e-06 0.008094 -0.999967
16.392378 -2.628143 71.38147
-24.235468 -2.380229 71.383598
-3e-06 0.00812 -0.999967
-24.343313 -2.412211 71.383339
-3e-06 0.008175 -0.999967
-24.45249 -2.439309 71.383118
-2e-06 0.008273 -0.999966
-24.562777 -2.461468 71.382935
-1e-06 0.008449 -0.999964
-24.673948 -2.478643 71.38279
-2e-06 0.00818 -0.999967
-24.785782 -2.490801 71.38269
-2e-06 0.008223 -0.999966
2e-06 0.002168 -0.999998
71.558868 -0.639133 71.392509
33.959541 -0.852331 71.391968
1e-06 0.001934 -0.999998
-1e-06 -0.004285 -0.999991
119.105988 1.122572 71.39106
78.33268 1.069052 71.391258
78.374878 0.927316 71.391739
-1e-06 -0.010276 -0.999947
166.491516 2.932957 71.378571
130.245926 2.911824 71.378807
-1e-06 -0.009462 -0.999955
130.377075 2.661861 71.381172
-3e-06 -0.010641 -0.999943
1e-06 0.002424 -0.999997
71.588951 -0.783924 71.392159
-9e-06 0.008726 -0.999962
16.526663 -3.033217 71.377571
-24.89805 -2.497915 71.382629
2e-06 0.009625 -0.999954
71.625122 -0.927316 71.391739
-1e-06 -0.003343 -0.999994
119.059692 0.844115 71.391991
78.411049 0.783924 71.392159
-1e-06 -0.002424 -0.999997
78.441132 0.639133 71.392509
2e-06 0.003619 -0.999993
71.66732 -1.069052 71.391258
33.909046 -1.276092 71.390434
1e-06 0.003391 -0.999994
-2e-06 -0.009287 -0.999957
166.362 2.526339 71.382347
0.0 -0.008588 -0.999963
130.496338 2.406009 71.383369
1e-06 0.003874 -0.999992
71.715469 -1.208879 71.390717
-1e-06 -0.002395 -0.999997
119.02655 0.563787 71.392662
78.465065 0.493199 71.392792
1e-05 0.010556 -0.999944
16.679995 -3.43147 71.373207
2e-05 0.010965 -0.99994
71.769478 -1.346549 71.390121
2e-06 0.005057 -0.999987
71.829254 -1.481816 71.389473
33.838509 -1.696976 71.388306
1e-06 0.004794 -0.999989
-0.0 -0.007712 -0.99997
166.251907 2.114037 71.385605
130.603424 2.144834 71.385384
0.0 -0.006828 -0.999977
130.69812 1.878911 71.387199
-1e-06 -0.000537 -1.0
78.494339 0.198949 71.393135
119.006638 0.282207 71.393066
78.498589 0.099515 71.393188
-1e-06 -0.001436 -0.999999
-1e-06 -0.001403 -0.999999
78.482811 0.346384 71.392998
1e-06 0.005235 -0.999986
71.894691 -1.614439 71.388779
5e-05 0.012329 -0.999924
16.852024 -3.822008 71.368401
71.965668 -1.744181 71.388039
119.0 -0.0 71.393204
78.5 -0.0 71.393204
78.496872 -0.147853 71.393166
-1e-06 -0.000487 -1.0
2e-06 0.006475 -0.999979
72.042061 -1.870811 71.38726
33.748089 -2.114037 71.385605
1e-06 0.006146 -0.999981
166.161499 1.696976 71.388306
130.780212 1.60883 71.388802
2e-06 0.00656 -0.999978
72.123726 -1.994102 71.386452
119.005196 -0.249701 71.393097
78.487503 -0.29544 71.393051
78.471909 -0.4425 71.392868
-1e-06 0.000428 -1.0
-1.7e-05 0.010977 -0.99994
17.042364 -4.203953 71.363205
9.2e-05 0.013647 -0.999907
-1e-05 0.011825 -0.99993
-74.826599 -3.495702 71.37249
0.0 0.006946 -0.999976
72.210526 -2.113834 71.38562
72.302307 -2.229794 71.384773
119.02079 -0.498969 71.392776
78.450104 -0.588767 71.392616
-0.0 0.001285 -0.999999
-1e-06 -0.005057 -0.999987
166.090958 1.276092 71.390434
-1e-06 -0.005019 -0.999987
130.849503 1.335187 71.390175
130.905853 1.058588 71.391296
3e-06 0.0079 -0.999969
72.398895 -2.341773 71.383904
33.637997 -2.526339 71.382347
2e-06 0.007768 -0.99997
1e-06 0.00814 -0.999967
72.50013 -2.449571 71.383026
1.4e-05 0.014876 -0.999889
17.250586 -4.576447 71.357666
1e-06 0.00841 -0.999965
72.605835 -2.552995 71.382156
119.05088 -0.779642 71.392166
78.422142 -0.733983 71.392288
78.388069 -0.877887 71.391891
-1e-06 0.002174 -0.999998
72.715805 -2.65186 71.381279
-2e-06 -0.003619 -0.999993
166.040466 0.852331 71.391968
130.949112 0.779642 71.392166
-1e-06 -0.002175 -0.999998
130.979218 0.498969 71.392776
3e-06 0.009286 -0.999957
72.829865 -2.745989 71.380424
33.50848 -2.932957 71.378571
2e-06 0.00908 -0.999959
2.9e-05 0.01615 -0.99987
17.476219 -4.938653 71.351822
119.094147 -1.058588 71.391296
78.347946 -1.020224 71.391434
78.301849 -1.160739 71.390915
-1e-06 0.003118 -0.999995
2e-06 0.009494 -0.999955
72.9478 -2.835214 71.379578
1e-06 0.009792 -0.999952
73.069397 -2.919376 71.378754
1e-06 0.009955 -0.99995
73.194443 -2.998325 71.377968
2e-06 0.010369 -0.999946
73.322708 -3.071921 71.377205
3e-06 0.010641 -0.999943
33.35984 -3.332978 71.374313
119.15049 -1.335187 71.390175
78.249855 -1.299182 71.390335
78.192055 -1.435307 71.389702
-1e-06 0.004054 -0.999992
-1e-06 -0.002169 -0.999998
166.010117 0.426647 71.392891
130.994797 0.249701 71.393097
4e-06 0.010535 -0.999944
73.453979 -3.140033 71.376488
4.7e-05 0.017349 -0.999849
17.718763 -5.289757 71.345741
-2.5e-05 0.013595 -0.999908
3e-06 0.010746 -0.999942
73.588005 -3.202539 71.375816
2e-06 0.010886 -0.999941
73.724556 -3.259328 71.375198
1e-06 0.011229 -0.999937
73.86338 -3.310298 71.374626
119.219788 -1.60883 71.388802
78.128563 -1.568871 71.389023
78.059494 -1.699635 71.388298
-1e-06 0.005018 -0.999987
1e-06 0.011179 -0.999938
74.004234 -3.355359 71.374123
2e-06 0.011971 -0.999928
74.146873 -3.394429 71.373672
33.192406 -3.725505 71.369614
2e-06 0.011526 -0.999933
5e-06 0.011579 -0.999933
74.291031 -3.42744 71.373291
5e-06 0.011658 -0.999932
74.436447 -3.454331 71.372978
7e-05 0.018538 -0.999828
17.977669 -5.628967 71.33947
4e-06 0.011808 -0.99993
74.582878 -3.475055 71.372734
-5e-06 0.013307 -0.999911
74.730049 -3.489574 71.372559
33.006565 -4.109658 71.364502
2e-06 0.012106 -0.999927
-2.3e-05 0.014581 -0.999894
74.877708 -3.497863 71.372467
32.802738 -4.484575 71.359039
2.3e-05 0.011452 -0.999934
166.0 -0.0 71.393204
0.0 -0.000428 -1.0
131.0 -0.0 71.393204
-5.2e-05 0.015839 -0.999875
75.025574 -3.499907 71.372437
32.581379 -4.849414 71.353271
-1.2e-05 0.014098 -0.999901
-9.2e-05 0.017088 -0.999854
32.342987 -5.203356 71.347244
-1e-06 0.005973 -0.999982
119.301872 -1.878911 71.387199
77.984962 -1.827367 71.387535
77.905098 -1.951838 71.386734
-1e-06 0.005932 -0.999982
0.0 0.000458 -1.0
166.003952 -0.266477 71.393082
0.0 0.000487 -1.0
130.993362 -0.282207 71.393066
9.6e-05 0.019679 -0.999806
18.252359 -5.955521 71.333069
-1e-06 0.006811 -0.999977
119.396568 -2.144834 71.385384
77.820061 -2.072827 71.38591
77.72998 -2.190115 71.385063
-1e-06 0.007604 -0.999971
77.63504 -2.303495 71.384201
-1e-06 0.006828 -0.999977
0.0 0.001436 -0.999999
166.015778 -0.532719 71.392723
130.97345 -0.563787 71.392662
-0.0 0.002395 -0.999997
130.940308 -0.844115 71.391991
-0.0 0.001347 -0.999999
0.000126 0.02082 -0.999783
18.542219 -6.268683 71.326584
-0.0 0.00796 -0.999968
119.50367 -2.406009 71.383369
77.535385 -2.412763 71.383331
77.431213 -2.517722 71.382454
-1e-06 0.007711 -0.99997
-1e-06 0.008658 -0.999963
119.622925 -2.661861 71.381172
77.322693 -2.618186 71.381584
-0.0 0.00908 -0.999959
77.21003 -2.713975 71.380714
-1e-06 0.009313 -0.999957
77.093414 -2.804916 71.379868
-1e-06 0.008587 -0.999963
0.000159 0.021917 -0.99976
18.8466 -6.56775 71.320076
1e-06 0.003342 -0.999994
166.051147 -0.958016 71.391647
130.894012 -1.122572 71.39106
-1e-06 0.009678 -0.999953
119.754082 -2.911824 71.378807
76.973061 -2.890848 71.379036
-0.0 0.009918 -0.999951
76.849182 -2.971618 71.378235
-1e-06 0.009461 -0.999955
0.000192 0.022939 -0.999737
19.16482 -6.852047 71.313614
-0.00266 -0.017789 -0.999838
200.0 0.0 71.393204
182.74942 4.576447 71.357666
-0.002213 -0.016105 -0.999868
182.957642 4.203953 71.363205
-0.001819 -0.014508 -0.999893
183.14798 3.822008 71.368401
-0.001466 -0.012952 -0.999915
183.320007 3.43147 71.373207
-0.001146 -0.011398 -0.999934
183.473343 3.033217 71.377571
-0.000874 -0.009914 -0.99995
183.60762 2.628143 71.38147
-0.000631 -0.0084 -0.999965
183.722549 2.217157 71.38485
-0.00043 -0.006921 -0.999976
183.817871 1.801183 71.387688
-0.000267 -0.005461 -0.999985
183.893372 1.381155 71.389961
-0.000142 -0.004003 -0.999992
183.948853 0.958016 71.391647
-5.4e-05 -0.002534 -0.999997
183.984222 0.532719 71.392723
-1.5e-05 -0.001347 -0.999999
183.996048 0.266477 71.393082
0.0 -0.000458 -1.0
184.0 -0.0 71.393204
-0.0 0.000733 -1.0
183.989883 -0.426647 71.392891
-0.002788 -0.018242 -0.99983
-1e-06 0.010213 -0.999948
119.896835 -3.155344 71.376305
76.722008 -3.047081 71.377464
-1e-06 0.01046 -0.999945
76.591751 -3.117104 71.376732
-0.0 0.010653 -0.999943
76.458649 -3.181561 71.376045
-1e-06 0.010904 -0.999941
76.322945 -3.24034 71.375404
-1e-06 0.010275 -0.999947
166.106628 -1.381155 71.389961
0.0 0.004285 -0.999991
130.834671 -1.398541 71.389877
-0.0 0.005228 -0.999986
130.762405 -1.671412 71.388451
0.000229 0.023967 -0.999713
19.496161 -7.120937 71.307243
-3e-05 0.017229 -0.999852
-3.8e-05 0.002171 -0.999998
183.959534 -0.852331 71.391968
-1e-06 0.011088 -0.999939
120.050888 -3.391881 71.37368
76.184883 -3.293333 71.374817
-1e-06 0.011175 -0.999938
76.044701 -3.340447 71.37429
-0.0 0.011496 -0.999934
75.902649 -3.381598 71.373817
-1e-06 0.011094 -0.999938
1.4e-05 0.02457 -0.999698
19.839882 -7.373817 71.301033
-1.5e-05 0.020604 -0.999788
-174.60936 -5.987268 71.332436
166.182129 -1.801183 71.387688
130.677383 -1.940582 71.386803
-2e-06 0.011524 -0.999934
120.215881 -3.620914 71.370964
75.758987 -3.416711 71.373413
-2e-06 0.011579 -0.999933
75.613976 -3.445724 71.373077
-1e-06 0.011689 -0.999932
75.467865 -3.468586 71.37281
-0.0 0.011858 -0.99993
-0.000116 0.003633 -0.999993
183.909042 -1.276092 71.390434
2e-05 0.025431 -0.999677
20.195206 -7.610122 71.295029
-4e-06 0.011935 -0.999929
120.391464 -3.841932 71.368172
75.320923 -3.485255 71.372612
-5e-06 0.011762 -0.999931
75.173401 -3.495702 71.37249
2e-06 0.012634 -0.99992
166.277451 -2.217157 71.38485
-0.0 0.007057 -0.999975
130.579803 -2.205457 71.384933
0.0 0.007923 -0.999969
130.469864 -2.465452 71.382874
2.6e-05 0.026209 -0.999656
20.561338 -7.82932 71.289291
7e-06 0.01336 -0.999911
120.577248 -4.054447 71.365334
-0.000232 0.005096 -0.999987
183.838501 -1.696976 71.388306
3.3e-05 0.02696 -0.999636
20.937456 -8.030919 71.283867
-5e-06 0.012866 -0.999917
120.772812 -4.257987 71.362465
1.6e-05 0.014108 -0.9999
166.39238 -2.628143 71.38147
1e-06 0.008811 -0.999961
130.347839 -2.719992 71.38063
4e-05 0.027591 -0.999619
21.322714 -8.214465 71.278816
2.7e-05 0.014766 -0.999891
120.977745 -4.452101 71.359604
-0.000386 0.006559 -0.999978
183.748093 -2.114037 71.385605
4.8e-05 0.028248 -0.999601
21.716246 -8.379547 71.27417
4.1e-05 0.015449 -0.999881
121.191574 -4.636358 71.356766
-4.4e-05 0.021185 -0.999776
22.117167 -8.52579 71.269974
5.5e-05 0.028831 -0.999584
4.6e-05 0.028168 -0.999603
-1e-06 0.00964 -0.999954
166.526657 -3.033217 71.377571
130.213974 -2.968515 71.378235
0.0 0.010468 -0.999945
130.068573 -3.210471 71.375702
-1e-06 0.009624 -0.999954
5.6e-05 0.016075 -0.999871
121.413849 -4.81035 71.353981
3.5e-05 0.029218 -0.999573
22.52457 -8.652867 71.266273
-0.00058 0.008056 -0.999967
183.638 -2.526339 71.382347
3.1e-05 0.029598 -0.999562
22.937544 -8.760489 71.2631
7.3e-05 0.016682 -0.999861
121.644058 -4.973694 71.351273
2.7e-05 0.030052 -0.999548
23.355154 -8.848414 71.260468
9.2e-05 0.017269 -0.999851
121.881691 -5.126029 71.348663
3e-06 0.014709 -0.999892
2.6e-05 0.030204 -0.999544
23.776464 -8.916443 71.258423
-2e-06 0.010956 -0.99994
166.679993 -3.43147 71.373207
-0.0 0.011272 -0.999936
129.911972 -3.445324 71.373055
-0.0 0.012053 -0.999927
129.744507 -3.672555 71.370316
2.3e-05 0.030562 -0.999533
24.200525 -8.964421 71.256966
2.1e-05 0.030755 -0.999527
24.626385 -8.992242 71.256119
1e-06 0.018209 -0.999834
122.126236 -5.267018 71.346176
32.0881 -5.545604 71.341011
1e-06 0.017639 -0.999844
1.8e-05 0.031136 -0.999515
25.053087 -8.999843 71.25589
-0.00081 0.009545 -0.999954
183.508484 -2.932957 71.378571
2e-06 0.018051 -0.999837
122.377144 -5.396351 71.343842
1e-06 0.018521 -0.999828
122.633858 -5.51374 71.341667
-2e-06 0.012306 -0.999924
166.85202 -3.822008 71.368401
0.0 0.012813 -0.999918
129.566544 -3.89166 71.367508
-1e-06 0.013519 -0.999909
129.378464 -4.102153 71.364662
1e-06 0.019313 -0.999813
122.895813 -5.618927 71.339684
31.817287 -5.875388 71.334641
1e-06 0.018856 -0.999822
-0.001076 0.011042 -0.999938
183.359833 -3.332978 71.374313
1e-06 0.019166 -0.999816
123.16243 -5.711678 71.337906
-0.0 0.020432 -0.999791
123.433113 -5.791787 71.336342
31.531157 -6.191966 71.328171
1e-06 0.019523 -0.999809
3e-06 0.019736 -0.999805
123.70726 -5.859077 71.335014
-2e-06 0.013601 -0.999908
167.042358 -4.203953 71.363205
-0.0 0.014204 -0.999899
129.18071 -4.303566 71.361801
2e-06 0.019951 -0.999801
123.984276 -5.913398 71.333931
2e-06 0.020175 -0.999797
124.263535 -5.954629 71.333099
-2e-06 0.021474 -0.999769
31.230345 -6.494624 71.321671
-0.001381 0.012561 -0.99992
183.192413 -3.725505 71.369614
-7e-06 0.022462 -0.999748
124.544426 -5.982679 71.332527
30.915525 -6.78268 71.315201
-1.5e-05 0.023448 -0.999725
30.587402 -7.055483 71.308807
4e-06 0.020437 -0.999791
-2.5e-05 0.024375 -0.999703
124.826317 -5.997486 71.33223
30.24671 -7.312421 71.302551
-3.7e-05 0.025235 -0.999681
29.894213 -7.552913 71.296494
-5.1e-05 0.02605 -0.999661
29.530703 -7.77642 71.290688
-6.5e-05 0.026808 -0.999641
29.156998 -7.982442 71.285187
-8.1e-05 0.027576 -0.99962
28.773941 -8.170518 71.280029
-9.4e-05 0.028168 -0.999603
28.382393 -8.340227 71.275284
1.9e-05 0.020451 -0.999791
-2e-06 0.014867 -0.999889
167.25058 -4.576447 71.357666
-2e-06 0.01491 -0.999889
128.973694 -4.495453 71.35894
-0.0 0.015515 -0.99988
128.757874 -4.677388 71.356117
-0.001731 0.014143 -0.999898
183.006561 -4.109658 71.364502
-2e-06 0.016131 -0.99987
167.476227 -4.938653 71.351822
-2e-06 0.016142 -0.99987
128.533752 -4.848966 71.353348
-1e-06 0.016696 -0.999861
128.301788 -5.009808 71.350662
-2e-06 0.017271 -0.999851
128.062515 -5.159558 71.348076
-0.002112 0.015717 -0.999874
182.802734 -4.484575 71.359039
-2e-06 0.017315 -0.99985
167.718765 -5.289757 71.345741
-1e-06 0.017703 -0.999843
127.816452 -5.297886 71.345627
-1e-06 0.018198 -0.999834
127.564156 -5.424489 71.343323
-0.002537 0.017346 -0.999846
182.581375 -4.849414 71.353271
-1e-06 0.018934 -0.999821
127.30619 -5.539087 71.341194
167.977676 -5.628967 71.33947
127.043106 -5.641424 71.339256
-1e-06 0.019273 -0.999814
126.775505 -5.731276 71.337524
-2e-06 0.018484 -0.999829
-1e-06 0.018574 -0.999828
-2e-06 0.019578 -0.999808
168.252365 -5.955521 71.333069
126.503967 -5.808443 71.336014
-1e-06 0.019811 -0.999804
126.229103 -5.872754 71.33474
-1e-06 0.019923 -0.999801
125.951515 -5.924067 71.333717
-1e-06 0.019597 -0.999808
-4e-06 0.020197 -0.999796
168.542221 -6.268683 71.326584
125.671822 -5.962266 71.332947
-2e-06 0.020465 -0.999791
125.39064 -5.987268 71.332436
0.0 0.020704 -0.999786
-1.2e-05 0.020409 -0.999792
168.846603 -6.56775 71.320076
125.108597 -5.999017 71.332199
6e-06 0.021762 -0.999763
1.9e-05 0.022745 -0.999741
169.164825 -6.852047 71.313614
3.8e-05 0.023732 -0.999718
169.496155 -7.120937 71.307243
-0.000166 0.054702 -0.998503
-200.0 -21.507866 70.608109
6.1e-05 0.024633 -0.999697
169.83989 -7.373817 71.301033
8.8e-05 0.025534 -0.999674
170.195206 -7.610122 71.295029
2.2e-05 0.023983 -0.999712
170.56134 -7.82932 71.289291
0.000118 0.026362 -0.999652
0.00015 0.027177 -0.999631
170.937454 -8.030919 71.283867
0.000181 0.027887 -0.999611
171.322708 -8.214465 71.278816
0.000218 0.028653 -0.999589
171.716248 -8.379547 71.27417
0.0 0.028543 -0.999593
27.983234 -8.491186 71.270973
-1e-06 0.024345 -0.999704
0.0 0.028973 -0.99958
172.117172 -8.52579 71.269974
27.57736 -8.623055 71.267151
-0.0 0.028681 -0.999589
0.0 0.029424 -0.999567
172.524567 -8.652867 71.266273
27.165686 -8.735539 71.26384
-0.0 0.029106 -0.999576
-0.0 0.029478 -0.999565
172.937546 -8.760489 71.2631
0.0 0.029816 -0.999555
26.749136 -8.828383 71.26107
-0.0 0.029984 -0.99955
173.355148 -8.848414 71.260468
26.328651 -8.901379 71.258881
-0.0 0.029923 -0.999552
-0.0 0.030042 -0.999549
173.776459 -8.916443 71.258423
-0.0 0.030371 -0.999539
25.90518 -8.954359 71.257271
0.0 0.030414 -0.999537
174.200531 -8.964421 71.256966
25.479671 -8.987206 71.256271
0.0 0.030358 -0.999539
0.0 0.030426 -0.999537
174.626389 -8.992242 71.256119
0.0 0.033483 -0.999439
200.0 -10.761095 71.196861
-0.002787 0.018242 -0.99983
-2.5e-05 0.031016 -0.999519
-0.002604 0.01878 -0.99982
182.342987 -5.203356 71.347244
-0.002255 0.019888 -0.9998
182.088104 -5.545604 71.341011
-0.001955 0.020918 -0.999779
181.817291 -5.875388 71.334641
-0.001678 0.021948 -0.999758
181.531158 -6.191966 71.328171
-0.001441 0.022904 -0.999737
181.230347 -6.494624 71.321671
-0.001237 0.023805 -0.999716
180.915527 -6.78268 71.315201
-0.001051 0.024693 -0.999695
180.587402 -7.055483 71.308807
-0.000893 0.025524 -0.999674
180.246704 -7.312421 71.302551
-0.000758 0.026292 -0.999654
179.894211 -7.552913 71.296494
-0.000643 0.027013 -0.999635
179.530701 -7.77642 71.290688
-0.000546 0.02768 -0.999617
179.156998 -7.982442 71.285187
-0.000457 0.028343 -0.999598
178.773941 -8.170518 71.280029
-0.000394 0.02886 -0.999583
178.382401 -8.340227 71.275284
-0.000332 0.029419 -0.999567
177.983231 -8.491186 71.270973
-0.000287 0.029855 -0.999554
177.577362 -8.623055 71.267151
-0.000243 0.030312 -0.99954
177.16568 -8.735539 71.26384
-0.000205 0.030736 -0.999527
176.74913 -8.828383 71.26107
-0.000181 0.031026 -0.999519
176.328659 -8.901379 71.258881
-0.000143 0.031513 -0.999503
175.905182 -8.954359 71.257271
-0.000114 0.031894 -0.999491
175.479675 -8.987206 71.256271
-6.9e-05 0.032514 -0.999471
175.053085 -8.999843 71.25589
8.1e-05 0.034642 -0.9994
0.000214 0.054702 -0.998503
200.0 -21.507866 70.608109
0.0 0.05172 -0.998662
0.0 0.091089 -0.995843
200.0 -32.226006 69.627724
-200.0 -32.226006 69.627724
0.0 0.127355 -0.991857
200.0 -42.901253 68.257011
-200.0 -42.901253 68.257011
0.000279 0.190789 -0.981631
-175.108597 -58.197205 65.595703
-175.39064 -58.208725 65.593384
-200.0 -53.51939 66.497795
-5.8e-05 0.189062 -0.981965
-174.826324 -58.198704 65.595398
0.000499 0.191901 -0.981414
-175.671829 -58.233238 65.588448
0.000663 0.192717 -0.981254
-175.951523 -58.270695 65.580902
0.000795 0.193358 -0.981128
-176.229095 -58.321003 65.570763
0.000923 0.19397 -0.981007
-176.503967 -58.384056 65.558037
0.001027 0.194454 -0.980911
-176.775513 -58.459709 65.542755
0.001142 0.194976 -0.980807
-177.043106 -58.547794 65.524933
0.001257 0.195478 -0.980707
-177.306183 -58.648109 65.504601
0.001377 0.19599 -0.980605
-177.564163 -58.760433 65.481789
0.001491 0.196459 -0.980511
-177.816452 -58.884518 65.456543
0.001629 0.197008 -0.980401
-178.062515 -59.020077 65.428894
0.001774 0.197568 -0.980288
-178.301788 -59.166813 65.398888
0.001918 0.1981 -0.98018
-178.533752 -59.324398 65.366585
0.002093 0.198722 -0.980054
-178.757874 -59.492485 65.332024
0.002273 0.199337 -0.979928
-178.973694 -59.670689 65.295273
-0.000166 0.163452 -0.986551
24.946913 -55.251427 66.172913
0.0 0.166398 -0.986059
1.7e-05 0.186535 -0.982448
24.520329 -55.263844 66.170547
2.2e-05 0.187081 -0.982345
24.09482 -55.296124 66.164391
2.4e-05 0.187354 -0.982293
23.671349 -55.34819 66.154449
2.6e-05 0.187594 -0.982247
23.250864 -55.419918 66.140739
2.9e-05 0.187888 -0.98219
22.834314 -55.511147 66.123276
4.5e-05 0.189593 -0.981863
22.42264 -55.621666 66.102074
3.2e-05 0.188289 -0.982114
0.002271 0.199331 -0.97993
-200.0 -64.066292 64.352417
0.000142 0.21295 -0.977063
-180.894012 -62.970047 64.594124
-180.834671 -62.700405 64.652901
0.000212 0.212018 -0.977266
-180.762405 -62.433739 64.71077
0.000294 0.211095 -0.977466
-180.677383 -62.170631 64.767616
0.000391 0.210151 -0.977669
-180.579803 -61.911674 64.823318
0.000499 0.209217 -0.977869
-180.469864 -61.657436 64.877769
0.00062 0.208286 -0.978068
-180.347839 -61.408485 64.930862
0.000754 0.207335 -0.97827
-180.213974 -61.165375 64.982491
0.000891 0.20644 -0.978459
-180.068573 -60.928642 65.03257
0.001053 0.205458 -0.978666
-179.911972 -60.698822 65.080986
0.001217 0.20452 -0.978862
-179.744507 -60.476418 65.127663
0.001397 0.203548 -0.979064
-179.566544 -60.261932 65.172508
0.001593 0.202543 -0.979272
-179.378464 -60.055847 65.215439
0.001795 0.201549 -0.979477
-179.18071 -59.858616 65.256386
0.002015 0.200504 -0.979691
8.4e-05 0.213916 -0.976852
-180.940308 -63.242058 64.534554
5.9e-05 0.188582 -0.982057
22.016766 -55.751221 66.077171
4.4e-05 0.21481 -0.976656
-180.97345 -63.515842 64.474335
5.2e-05 0.189113 -0.981955
21.617607 -55.899509 66.048592
-3.4e-05 0.196672 -0.980469
21.226059 -56.0662 66.016373
-174.544418 -58.213223 65.592476
4.5e-05 0.189671 -0.981848
-3.7e-05 0.205554 -0.978646
-170.215881 -60.526966 65.117081
-125.101952 -61.625698 64.884575
-170.050888 -60.751125 65.069992
-2.2e-05 0.206307 -0.978487
-169.896835 -60.982586 65.021187
-1e-05 0.207135 -0.978312
-169.754074 -61.220837 64.970741
4.3e-05 0.208735 -0.977972
-124.989471 -61.623684 64.88501
-0.000132 0.202611 -0.979259
-170.977737 -59.71315 65.286499
-170.772812 -59.903252 65.247139
-0.000105 0.203303 -0.979116
-170.57724 -60.102558 65.205734
-7.9e-05 0.204043 -0.978962
-170.391464 -60.310619 65.162354
-5.7e-05 0.20478 -0.978808
-2e-06 0.207936 -0.978142
-125.214218 -61.632652 64.883095
-169.622925 -61.465347 64.918762
0.0 0.208172 -0.978092
2e-06 0.208935 -0.977929
-125.32605 -61.644543 64.880554
3e-06 0.209193 -0.977874
-125.437225 -61.661339 64.876961
2e-06 0.208968 -0.977922
-125.547508 -61.68301 64.87233
1e-06 0.20879 -0.97796
-125.656685 -61.709511 64.866661
-169.503662 -61.715569 64.865341
3e-06 0.209163 -0.977881
1.4e-05 0.215782 -0.976442
-180.993362 -63.790791 64.413574
1e-06 0.209218 -0.977869
-125.764534 -61.740784 64.85997
3.9e-05 0.190304 -0.981725
20.843002 -56.250908 65.980553
1e-06 0.209372 -0.977836
-125.870834 -61.776772 64.852264
1e-06 0.209514 -0.977806
-125.975365 -61.817398 64.843559
1e-06 0.209667 -0.977773
-126.077919 -61.862583 64.83387
1e-06 0.209732 -0.977759
-126.178291 -61.912235 64.823219
1e-06 0.209616 -0.977784
-169.396576 -61.970951 64.810593
0.0 0.210024 -0.977696
-126.276268 -61.966255 64.811615
3.2e-05 0.190963 -0.981597
20.469297 -56.453205 65.941185
0.0 0.21671 -0.976236
-181.0 -64.066292 64.352417
0.0 0.210175 -0.977664
-126.371658 -62.024529 64.799088
1e-06 0.210344 -0.977627
-126.464272 -62.086937 64.78566
1e-06 0.210498 -0.977594
-126.553925 -62.153355 64.771355
-169.30188 -62.230919 64.754616
1e-06 0.210551 -0.977583
2.5e-05 0.191698 -0.981454
20.105787 -56.672642 65.898315
0.0 0.210815 -0.977526
-126.640427 -62.223648 64.756195
0.0 0.217581 -0.976042
-180.994797 -64.310005 64.298088
0.0 0.21107 -0.977471
-126.723602 -62.297668 64.740211
1e-06 0.211406 -0.977398
-126.803299 -62.375263 64.723434
-169.219788 -62.494904 64.697517
1e-06 0.21133 -0.977415
1.8e-05 0.192512 -0.981295
19.75329 -56.908707 65.851997
0.0 0.211596 -0.977357
-126.879349 -62.45628 64.705894
1.1e-05 0.218409 -0.975857
-180.979218 -64.553261 64.243645
0.0 0.211831 -0.977306
-126.951591 -62.540546 64.68763
-5.2e-05 0.199882 -0.97982
-172.126236 -58.914768 65.450378
-75.173401 -60.649521 65.091377
-171.881699 -59.052933 65.42218
-4.4e-05 0.200337 -0.979727
-171.644058 -59.202198 65.391647
-3.5e-05 0.200906 -0.979611
-171.413849 -59.362232 65.358818
-2.6e-05 0.201514 -0.979486
-171.191574 -59.532677 65.323746
-1.9e-05 0.202102 -0.979365
2.2e-05 0.206162 -0.978518
2.9e-05 0.204194 -0.97893
-75.025574 -60.645409 65.092239
-0.000125 0.19657 -0.98049
-174.263535 -58.240726 65.586937
-173.984268 -58.281155 65.578796
-0.00011 0.19716 -0.980371
-173.70726 -58.334415 65.568054
-0.000104 0.197401 -0.980323
-173.433105 -58.400387 65.554741
-9.4e-05 0.197838 -0.980235
-173.16243 -58.478924 65.538864
-8.7e-05 0.198124 -0.980177
-172.895813 -58.569847 65.520462
-7.8e-05 0.198511 -0.980099
-172.633865 -58.672955 65.499557
-6.9e-05 0.198954 -0.980009
-172.377136 -58.788013 65.476181
-6.1e-05 0.199356 -0.979927
3.7e-05 0.205424 -0.978673
-75.320923 -60.659744 65.089226
4.4e-05 0.205104 -0.97874
-75.467865 -60.67606 65.0858
1e-06 0.212183 -0.97723
-127.01989 -62.627899 64.668663
1e-06 0.212285 -0.977208
-169.150497 -62.76231 64.639427
3.2e-05 0.205694 -0.978616
-75.613976 -60.698433 65.081093
3.7e-05 0.205432 -0.978671
-75.758987 -60.72683 65.075127
-1e-05 0.197325 -0.980338
19.412598 -57.16087 65.802307
-2.8e-05 0.200399 -0.979714
1.3e-05 0.193322 -0.981135
2.9e-05 0.205851 -0.978583
-75.902649 -60.761192 65.067894
0.0 0.21245 -0.977172
-127.084106 -62.718155 64.64904
2.9e-05 0.205867 -0.97858
-76.044701 -60.801464 65.059418
-3.5e-05 0.209475 -0.977814
-124.877022 -61.626621 64.884377
2.3e-05 0.206222 -0.978505
-76.184883 -60.847569 65.049698
2.2e-05 0.206251 -0.978499
-76.322945 -60.899422 65.038765
3.5e-05 0.219311 -0.975655
-180.949112 -64.827103 64.182091
-0.0 0.212794 -0.977097
-127.144104 -62.811131 64.628792
1.9e-05 0.206458 -0.978455
-76.458649 -60.956936 65.026627
1e-06 0.213185 -0.977012
-127.199768 -62.906639 64.607964
-169.094147 -63.032555 64.58046
0.0 0.213069 -0.977037
1.5e-05 0.206738 -0.978396
-76.591751 -61.020004 65.013298
0.000218 0.193998 -0.981002
19.084475 -57.428555 65.749298
1.2e-05 0.206977 -0.978346
-76.722008 -61.088516 64.998802
0.0 0.213372 -0.976971
-127.250984 -63.004486 64.586594
1e-05 0.20713 -0.978313
-76.849182 -61.162346 64.98317
7.4e-05 0.220242 -0.975445
-180.905853 -65.099197 64.120659
-0.0 0.213773 -0.976883
-127.297638 -63.104477 64.564713
6e-06 0.20751 -0.978233
-76.973061 -61.24136 64.966408
-0.0 0.208296 -0.978066
-124.764816 -61.634502 64.882698
0.000183 0.194983 -0.980807
18.769655 -57.71114 65.693062
0.0 0.21408 -0.976816
-127.339645 -63.206406 64.542374
1e-06 0.214129 -0.976805
-169.050888 -63.305031 64.520729
5e-06 0.207731 -0.978186
-77.093414 -61.325424 64.948555
2e-06 0.208045 -0.978119
-77.21003 -61.414379 64.929634
-3e-06 0.20907 -0.977901
-124.653091 -61.647312 64.879959
-0.0 0.214365 -0.976754
-127.376915 -63.31007 64.519623
0.000126 0.221156 -0.975238
-180.849503 -65.36895 64.059494
1e-06 0.208353 -0.978054
-77.322693 -61.508068 64.909676
-1e-06 0.208935 -0.97793
-124.542068 -61.665024 64.876175
-1e-06 0.20915 -0.977884
-124.431969 -61.687603 64.871346
0.0 0.214792 -0.97666
-127.40937 -63.415253 64.49649
1e-06 0.215039 -0.976605
-169.020782 -63.57914 64.460373
-1e-06 0.209234 -0.977866
-124.323029 -61.715 64.865486
-77.431213 -61.606323 64.88871
-124.215454 -61.747162 64.858604
0.0 0.208681 -0.977984
-0.0 0.209137 -0.977886
0.000149 0.196029 -0.980598
18.468843 -58.007984 65.633675
0.0 0.21513 -0.976585
-127.436951 -63.521751 64.47303
-0.0 0.209466 -0.977816
-77.535385 -61.708969 64.866776
-124.109467 -61.784023 64.850708
-0.0 0.209479 -0.977813
-124.005295 -61.825512 64.84182
0.0 0.208973 -0.977921
-0.0 0.215552 -0.976492
-127.459587 -63.629345 64.44928
0.000194 0.222102 -0.975024
-180.780212 -65.635765 63.99873
-0.0 0.209562 -0.977795
-77.63504 -61.815819 64.843895
-123.90313 -61.87154 64.831955
-0.0 0.209851 -0.977733
-123.803192 -61.922016 64.821121
-0.0 0.209391 -0.977832
0.0 0.215854 -0.976426
-127.477242 -63.737816 64.425301
0.0 0.215935 -0.976408
-169.005203 -63.822525 64.406548
0.000118 0.197084 -0.980386
18.182713 -58.318413 65.571236
-3.5e-05 0.202962 -0.979187
-74.877708 -60.647408 65.09182
-0.0 0.210068 -0.977687
-77.72998 -61.926678 64.820114
-123.705688 -61.976841 64.809341
-0.0 0.210158 -0.977667
-123.610802 -62.0359 64.796646
-0.0 0.209743 -0.977757
-0.0 0.216244 -0.976339
-127.489876 -63.846943 64.401131
-0.0 0.2104 -0.977615
-77.820061 -62.041351 64.795464
-123.51873 -62.099072 64.783051
-0.0 0.210162 -0.977667
0.000275 0.22304 -0.974809
-180.69812 -65.899055 63.938511
0.0 0.216585 -0.976264
-127.497467 -63.956509 64.376823
1e-06 0.216778 -0.976221
-169.0 -64.066292 64.352417
-0.0 0.210682 -0.977555
-77.905098 -62.159634 64.769997
-123.429657 -62.166225 64.768578
-0.0 0.21082 -0.977525
-123.343765 -62.237225 64.753265
-0.0 0.210483 -0.977597
0.0 0.217017 -0.976168
-127.5 -64.066292 64.352417
8.9e-05 0.198201 -0.980161
17.9119 -58.641708 65.505836
0.0 0.211134 -0.977457
-77.984962 -62.281307 64.743744
-123.261223 -62.311928 64.737129
-0.0 0.211377 -0.977405
-123.182198 -62.390175 64.720207
-0.0 0.21091 -0.977505
0.0 0.217343 -0.976095
-127.497917 -64.165794 64.330261
1e-06 0.217635 -0.97603
-169.006638 -64.341728 64.291
0.000367 0.223966 -0.974597
-180.603424 -66.158234 63.878986
-0.0 0.211627 -0.97735
-78.059494 -62.406155 64.716743
-123.10685 -62.471813 64.70253
-0.0 0.211381 -0.977404
0.0 0.217692 -0.976017
-127.491684 -64.265129 64.308105
-0.0 0.218021 -0.975944
-127.479988 -64.374313 64.283714
-0.0 0.211732 -0.977328
-78.128563 -62.533955 64.689056
0.0 0.211932 -0.977284
-123.035332 -62.556671 64.684128
-0.0 0.212204 -0.977225
-122.967789 -62.644577 64.665039
0.000472 0.224889 -0.974384
-180.496338 -66.412743 63.820297
6.4e-05 0.199322 -0.979934
17.657013 -58.977142 65.437592
1e-06 0.218574 -0.97582
-127.463272 -64.482864 64.259422
-169.02655 -64.616501 64.229454
0.0 0.218383 -0.975863
0.0 0.212537 -0.977153
-78.192055 -62.664478 64.660713
-122.90435 -62.735355 64.645294
0.0 0.218782 -0.975774
-127.441559 -64.590561 64.235275
0.0 0.212799 -0.977096
-78.249855 -62.797493 64.631767
-122.845154 -62.828819 64.624939
-0.0 0.212638 -0.977131
0.000589 0.225815 -0.97417
-180.377075 -66.66201 63.762589
-0.0 0.219155 -0.97569
-127.414902 -64.697182 64.211327
1e-06 0.219517 -0.975609
-169.059692 -64.889999 64.167915
4.2e-05 0.200497 -0.979694
17.418623 -59.323944 65.366608
0.0 0.213146 -0.977021
-78.301849 -62.932758 64.602264
-122.790314 -62.924782 64.604004
0.0 0.213451 -0.976954
-122.739944 -63.023045 64.582535
-0.0 0.213101 -0.97703
1e-06 0.219489 -0.975615
-127.383354 -64.802513 64.18763
-0.0 0.219904 -0.975521
-127.346977 -64.906349 64.164223
0.0 0.213784 -0.976881
-78.347946 -63.07003 64.572258
-122.694145 -63.123413 64.56057
-0.0 0.213549 -0.976932
0.00072 0.226755 -0.973952
-180.245926 -66.905495 63.705997
1e-06 0.220425 -0.975404
-127.305855 -65.008476 64.141174
-169.105988 -65.161606 64.106537
-0.0 0.220147 -0.975467
0.0 0.214167 -0.976797
-78.388069 -63.209072 64.541794
-122.653023 -63.225681 64.538147
-0.0 0.214463 -0.976732
-122.616646 -63.329643 64.51532
-0.0 0.214024 -0.976828
2.4e-05 0.201696 -0.979448
17.197264 -59.681328 65.293007
-1.2e-05 0.205006 -0.978761
-74.730049 -60.655521 65.090118
0.0 0.220546 -0.975377
-127.260056 -65.108688 64.118515
0.000861 0.227686 -0.973734
-180.103165 -67.142654 63.650669
0.0 0.214887 -0.976639
-78.422142 -63.349625 64.510925
-122.585098 -63.435089 64.492119
-0.0 0.21451 -0.976722
-0.0 0.22088 -0.975301
-127.209686 -65.206787 64.096298
0.0 0.221222 -0.975224
-127.154846 -65.302574 64.07457
1e-06 0.221357 -0.975193
-169.165329 -65.430733 64.045448
0.0 0.215171 -0.976576
-78.450104 -63.491447 64.479706
-122.558441 -63.541809 64.468605
-0.0 0.214983 -0.976618
0.001015 0.228635 -0.973512
-179.949112 -67.372978 63.596737
0.0 0.221573 -0.975144
-127.09565 -65.395851 64.053375
-3.1e-05 0.205775 -0.978599
-74.291031 -60.716328 65.077332
-25.10195 -61.625698 64.884575
-74.146873 -60.748634 65.070534
-2.8e-05 0.2059 -0.978573
-74.004234 -60.786869 65.062485
-2.7e-05 0.205952 -0.978562
-73.86338 -60.830967 65.0532
-2.3e-05 0.206206 -0.978509
-73.724556 -60.88084 65.042686
-1.9e-05 0.206432 -0.978461
-73.588005 -60.936409 65.03096
-1.5e-05 0.206717 -0.978401
-73.453979 -60.99757 65.018036
-1.3e-05 0.206849 -0.978373
-73.322708 -61.064213 65.003944
-1e-05 0.2071 -0.97832
-73.194443 -61.136215 64.988701
-8e-06 0.207362 -0.978264
-73.069397 -61.213451 64.972328
-2.4e-05 0.206068 -0.978538
-24.989475 -61.623684 64.88501
-3.3e-05 0.20563 -0.97863
-74.582878 -60.669731 65.087128
3.5e-05 0.209174 -0.977879
-4.2e-05 0.20516 -0.978728
-74.436447 -60.69001 65.08287
-3e-05 0.205795 -0.978595
-0.0 0.208177 -0.978091
-25.214218 -61.632652 64.883095
-6e-06 0.207574 -0.978219
-72.9478 -61.295784 64.954857
-3e-06 0.207937 -0.978142
-72.829865 -61.383064 64.936302
0.00013 0.202854 -0.979209
16.993433 -60.048485 65.216919
0.0 0.215606 -0.976481
-78.471909 -63.634281 64.448196
-122.536728 -63.649582 64.444809
0.0 0.215921 -0.976411
-122.520012 -63.75819 64.420792
-0.0 0.215422 -0.976521
2e-06 0.208929 -0.977931
-25.326052 -61.644543 64.880554
-1e-06 0.208296 -0.978066
-72.715805 -61.475132 64.916695
2e-06 0.209197 -0.977873
-25.437223 -61.661339 64.876961
-1e-06 0.208506 -0.978021
-72.605835 -61.571827 64.89608
-0.0 0.221823 -0.975087
-127.032211 -65.486435 64.032768
0.0 0.208976 -0.977921
-25.54751 -61.68301 64.87233
1e-06 0.209171 -0.977879
-25.656687 -61.709511 64.866661
-0.0 0.208902 -0.977937
-72.50013 -61.672974 64.874474
0.0 0.209219 -0.977869
-25.764532 -61.740784 64.85997
0.0 0.209372 -0.977836
-25.870831 -61.776772 64.852264
0.0 0.209273 -0.977857
-72.398895 -61.778389 64.851913
0.0 0.222109 -0.975022
-126.964668 -65.57415 64.012787
1e-06 0.222279 -0.974983
-169.237595 -65.696777 63.984795
0.0 0.216309 -0.976325
-78.487503 -63.77787 64.416435
-122.508316 -63.86742 64.396591
-0.0 0.215975 -0.976399
0.0 0.209516 -0.977805
-25.975363 -61.817398 64.843559
0.001179 0.229575 -0.97329
-179.784119 -67.595955 63.544342
0.0 0.20967 -0.977772
-26.077919 -61.862583 64.83387
0.0 0.209639 -0.977779
-72.302307 -61.887882 64.828438
0.0 0.222389 -0.974958
-126.89315 -65.658806 63.993477
0.0 0.209734 -0.977759
-26.178288 -61.912235 64.823219
0.0 0.216653 -0.976249
-78.496872 -63.921959 64.384491
-122.502083 -63.966774 64.374542
-0.0 0.216443 -0.976295
0.0 0.209945 -0.977713
-26.276268 -61.966255 64.811615
-72.210526 -62.001259 64.804092
0.0 0.222734 -0.974879
-126.817802 -65.740234 63.974873
-0.0 0.210176 -0.977664
-26.37166 -62.024529 64.799088
0.000214 0.163452 -0.986551
200.0 -53.51939 66.497795
-2.1e-05 0.186442 -0.982466
25.373615 -55.258896 66.171486
8e-05 0.204147 -0.97894
16.807592 -60.42458 65.138474
1e-06 0.22316 -0.974782
-126.738777 -65.818275 63.957024
-169.322617 -65.959167 63.924725
0.0 0.222956 -0.974829
0.001355 0.230534 -0.973063
-179.608536 -67.811089 63.493618
0.0 0.210345 -0.977627
-26.464273 -62.086937 64.78566
0.0 0.210395 -0.977616
-72.123726 -62.118317 64.7789
0.0 0.217026 -0.976166
-78.5 -64.066292 64.352417
-122.5 -64.066292 64.352417
-0.0 0.21693 -0.976187
1e-06 0.223227 -0.974767
-126.656235 -65.892769 63.939964
0.0 0.210553 -0.977582
-26.553923 -62.153355 64.771355
0.0 0.22346 -0.974713
-126.570343 -65.96357 63.923733
0.0 0.217361 -0.976091
-78.498589 -64.163429 64.330788
-122.502533 -64.176064 64.327972
0.0 0.217344 -0.976095
-26.640423 -62.223648 64.756195
0.0 0.210767 -0.977536
-72.042061 -62.238838 64.752914
0.0 0.223728 -0.974651
-126.48127 -66.030525 63.908363
1e-06 0.224044 -0.974579
-169.420197 -66.217316 63.865379
-26.723606 -62.297668 64.740211
0.0 0.211224 -0.977438
-71.965668 -62.362617 64.726166
0.001547 0.231525 -0.972828
-179.42276 -68.017914 63.444691
0.0 0.217744 -0.976006
-78.494339 -64.260475 64.309151
-122.510124 -64.285599 64.303535
-0.0 0.217613 -0.976035
1e-06 0.223934 -0.974604
-126.389198 -66.093498 63.893894
0.0 0.21133 -0.977415
-26.803301 -62.375263 64.723434
1e-06 0.224128 -0.97456
-126.294312 -66.152367 63.880356
4.1e-05 0.205453 -0.978667
16.640162 -60.808758 65.057816
-3.9e-05 0.209328 -0.977845
-24.87702 -61.626621 64.884377
-26.879347 -62.45628 64.705894
0.0 0.211579 -0.977361
-71.894691 -62.489422 64.698715
0.0 0.218108 -0.975925
-78.482811 -64.404366 64.276993
-0.0 0.218079 -0.975931
-122.522758 -64.394684 64.27916
0.0 0.218465 -0.975845
-122.540413 -64.50309 64.25489
1e-06 0.224344 -0.97451
-126.196808 -66.207016 63.867775
0.001747 0.232509 -0.972593
-179.227188 -68.215973 63.397694
-26.951593 -62.540546 64.68763
0.0 0.212043 -0.97726
-71.829254 -62.61903 64.670593
1e-06 0.224483 -0.974478
-126.09687 -66.257324 63.856186
1e-06 0.224903 -0.974381
-125.994705 -66.3032 63.845608
-169.530136 -66.470657 63.806904
1e-06 0.224689 -0.97443
0.0 0.218888 -0.97575
-78.465065 -64.54763 64.244904
-122.563049 -64.610596 64.230774
-0.0 0.21857 -0.975821
-0.0 0.212183 -0.97723
-27.019892 -62.627899 64.668663
2e-06 0.224811 -0.974402
-125.890533 -66.344536 63.836071
1e-06 0.224929 -0.974375
-125.784546 -66.381271 63.827591
0.001969 0.233566 -0.972339
-179.022263 -68.404839 63.352741
-27.084106 -62.718155 64.64904
0.0 0.212521 -0.977157
-71.769478 -62.751209 64.641846
1e-06 0.225141 -0.974326
-125.676971 -66.413315 63.820187
1e-06 0.2252 -0.974313
-125.568031 -66.440613 63.813877
-0.0 0.219056 -0.975712
-78.441132 -64.690018 64.212936
0.0 0.219189 -0.975682
-122.59063 -64.716995 64.206871
1e-06 0.225164 -0.974321
-125.457932 -66.463112 63.808678
1e-06 0.22575 -0.974185
-169.652161 -66.718636 63.749439
2e-06 0.225458 -0.974253
-125.346909 -66.480751 63.804596
-27.144106 -62.811131 64.628792
0.0 0.212915 -0.977071
-71.715469 -62.885723 64.612534
3e-06 0.225392 -0.974268
-125.235184 -66.493515 63.801643
-4e-06 0.226578 -0.973993
-169.786026 -66.960709 63.693127
9e-06 0.225462 -0.974252
-125.122978 -66.501366 63.799828
-1.2e-05 0.227393 -0.973803
-169.931427 -67.196335 63.638107
-2.5e-05 0.228179 -0.973619
-170.088028 -67.425011 63.584518
-4.1e-05 0.228946 -0.973439
-125.010529 -66.504295 63.799149
-170.255493 -67.646225 63.532497
-6.2e-05 0.229709 -0.973259
-170.433456 -67.859489 63.482174
-8.4e-05 0.23043 -0.973089
-170.621536 -68.064339 63.433681
1.5e-05 0.226331 -0.974051
-2e-06 0.208271 -0.978071
16.491518 -61.200157 64.975098
-24.764816 -61.634502 64.882698
1.4e-05 0.206767 -0.97839
-0.0 0.184378 -0.982855
174.520325 -55.263844 66.170547
0.0 0.187226 -0.982317
25.799475 -55.286236 66.166275
0.000143 0.182352 -0.983233
174.946915 -55.251427 66.172913
0.0 0.187357 -0.982292
174.094818 -55.296124 66.164391
0.0 0.187551 -0.982255
26.223536 -55.333385 66.157272
-4.7e-05 0.185017 -0.982735
175.373611 -55.258896 66.171486
-0.00011 0.231145 -0.972919
-170.81929 -68.260323 63.387142
0.0 0.187658 -0.982234
173.671341 -55.34819 66.154449
26.644846 -55.400234 66.144501
0.0 0.187542 -0.982257
-0.0 0.21307 -0.977037
-27.199768 -62.906639 64.607964
0.002213 0.234682 -0.97207
-178.808426 -68.584076 63.309956
-0.0 0.219532 -0.975605
-78.411049 -64.831276 64.181152
-122.623085 -64.822067 64.183228
0.0 0.219974 -0.975506
-122.660355 -64.925598 64.159882
-0.0 0.219518 -0.975608
-9.9e-05 0.185731 -0.982601
175.799469 -55.286236 66.166275
0.0 0.187741 -0.982219
173.25087 -55.419918 66.140739
0.0 0.187945 -0.982179
27.062456 -55.486633 66.127968
-0.000143 0.186308 -0.982491
176.223541 -55.333385 66.157272
-27.250982 -63.004486 64.586594
0.0 0.213393 -0.976966
-71.66732 -63.022331 64.582695
0.0 0.188275 -0.982116
172.83432 -55.511147 66.123276
27.47543 -55.592377 66.107697
0.0 0.188014 -0.982166
0.0 0.220227 -0.975449
-78.374878 -64.971153 64.149605
-122.702362 -65.027382 64.136902
-0.0 0.220011 -0.975497
-0.000169 0.186632 -0.98243
176.644852 -55.400234 66.144501
0.0 0.213857 -0.976865
-27.29764 -63.104477 64.564713
-71.625122 -63.160789 64.552383
0.0 0.188678 -0.982039
172.422638 -55.621666 66.102074
27.882833 -55.717224 66.08371
-0.0 0.188405 -0.982091
-0.0002 0.187011 -0.982358
177.062454 -55.486633 66.127968
-0.0 0.220474 -0.975393
-78.33268 -65.109406 64.118355
0.0 0.220622 -0.975359
-122.749016 -65.12722 64.114319
0.0 0.214366 -0.976753
-27.339647 -63.206406 64.542374
-71.588951 -63.30085 64.521645
-0.0 0.214081 -0.976816
-0.0 0.208093 -0.978109
16.362003 -61.597889 64.89048
-1e-06 0.209082 -0.977898
-24.65309 -61.647312 64.879959
-1e-06 0.208934 -0.97793
-24.542067 -61.665024 64.876175
-1e-06 0.209151 -0.977883
-24.431971 -61.687603 64.871346
-1e-06 0.209134 -0.977887
-24.323027 -61.715 64.865486
-2e-06 0.209231 -0.977866
-24.215454 -61.747162 64.858604
-2e-06 0.20946 -0.977817
-24.10947 -61.784023 64.850708
-2e-06 0.209474 -0.977814
-24.005293 -61.825512 64.84182
-3e-06 0.209556 -0.977797
-23.903131 -61.87154 64.831955
-0.0 0.18876 -0.982023
172.016769 -55.751221 66.077171
0.0 0.189091 -0.981959
28.283754 -55.860886 66.056046
-0.000234 0.187392 -0.982285
177.475433 -55.592377 66.107697
-27.376917 -63.31007 64.519623
-0.0 0.220973 -0.97528
-78.284531 -65.245781 64.087456
-0.0 0.220913 -0.975293
-122.800232 -65.224899 64.092194
0.0 0.221341 -0.975197
-122.855896 -65.320229 64.070557
-0.0 0.189248 -0.981929
171.617599 -55.899509 66.048592
0.0 0.214776 -0.976663
-27.409374 -63.415253 64.49649
-71.558868 -63.442261 64.490547
-0.000274 0.187815 -0.982204
177.882828 -55.717224 66.08371
0.0 0.221538 -0.975152
-78.230522 -65.380035 64.056976
-122.915894 -65.413017 64.049477
-0.0 0.221394 -0.975185
0.0 0.215336 -0.97654
-27.436951 -63.521751 64.47303
-71.534935 -63.584774 64.459122
-0.000318 0.188236 -0.982124
178.283752 -55.860886 66.056046
-0.0 0.22186 -0.975078
-78.170746 -65.511932 64.02697
-122.98011 -65.503082 64.028984
0.0 0.222259 -0.974988
-123.048409 -65.590233 64.009117
-0.0 0.221831 -0.975085
0.0 0.215764 -0.976446
-27.459589 -63.629345 64.44928
-71.517189 -63.72813 64.427444
-1e-06 0.20985 -0.977733
16.251911 -62.001057 64.804115
-23.803196 -61.922016 64.821121
-1e-06 0.210067 -0.977687
-23.705687 -61.976841 64.809341
-1e-06 0.210158 -0.977667
-23.610802 -62.0359 64.796646
-1e-06 0.210399 -0.977616
-23.51873 -62.099072 64.783051
-1e-06 0.21068 -0.977555
-23.429657 -62.166225 64.768578
-2e-06 0.210818 -0.977525
-23.343765 -62.237225 64.753265
-2e-06 0.209464 -0.977816
-27.477243 -63.737816 64.425301
0.0 0.222435 -0.974947
-78.105309 -65.641235 63.997486
-123.120651 -65.674301 63.989937
-0.0 0.222315 -0.974975
-0.000376 0.188759 -0.982023
178.677292 -56.023037 66.024727
-27.48988 -63.846943 64.401131
0.0 0.216256 -0.976337
-71.505661 -63.872074 64.395561
-0.0 0.222755 -0.974874
-78.034332 -65.767723 63.968586
-123.196701 -65.755104 63.971474
-0.0 0.222996 -0.974819
-123.276398 -65.832497 63.95377
-0.0 0.222742 -0.974877
1e-06 0.193364 -0.981127
124.891403 -58.197205 65.595703
-9.8e-05 0.18941 -0.981898
28.677286 -56.023037 66.024727
-8.3e-05 0.190048 -0.981775
29.062544 -56.2033 65.989799
-6.8e-05 0.190732 -0.981642
29.438662 -56.401264 65.951309
-5.4e-05 0.191451 -0.981502
29.804792 -56.616478 65.909309
-4e-05 0.192272 -0.981342
30.160118 -56.848446 65.863846
