-27.5 -127.194337323 48.0945098526
-22.5 -127.194337323 48.0945098526
-22.5 -125.074431701 43.5661547259
-27.5 -125.074431701 43.5661547259
-200.0 196.666666667 -3.7267799625
200.0 196.666666667 -3.7267799625
-200.0 -196.666666667 -3.7267799625
200.0 -196.666666667 -3.7267799625
-127.5 -125.074431701 43.5661547259
-122.5 -125.074431701 43.5661547259
-127.5 -64.0662899644 64.3524189634
-122.5 -64.0662899644 64.3524189634
-27.5 -64.0662899644 64.3524189634
-22.5 -64.0662899644 64.3524189634
-78.5 -125.074431701 43.5661547259
-71.5 -125.074431701 43.5661547259
71.5 -125.074431701 43.5661547259
78.5 -125.074431701 43.5661547259
-78.5 -64.0662899644 64.3524189634
-71.5 -64.0662899644 64.3524189634
71.5 -64.0662899644 64.3524189634
78.5 -64.0662899644 64.3524189634
-181.0 -125.074431701 43.5661547259
-169.0 -125.074431701 43.5661547259
119.0 -125.074431701 43.5661547259
131.0 -125.074431701 43.5661547259
-181.0 -64.0662899644 64.3524189634
-169.0 -64.0662899644 64.3524189634
119.0 -64.0662899644 64.3524189634
131.0 -64.0662899644 64.3524189634
16.0 -125.074431701 43.5661547259
34.0 -125.074431701 43.5661547259
166.0 -125.074431701 43.5661547259
184.0 -125.074431701 43.5661547259
16.0 -64.0662899644 64.3524189634
34.0 -64.0662899644 64.3524189634
166.0 -64.0662899644 64.3524189634
184.0 -64.0662899644 64.3524189634
-127.5 125.074431701 43.5661547259
-122.5 125.074431701 43.5661547259
-27.5 125.074431701 43.5661547259
-22.5 125.074431701 43.5661547259
-78.5 125.074431701 43.5661547259
-71.5 125.074431701 43.5661547259
71.5 125.074431701 43.5661547259
78.5 125.074431701 43.5661547259
-181.0 125.074431701 43.5661547259
-169.0 125.074431701 43.5661547259
119.0 125.074431701 43.5661547259
131.0 125.074431701 43.5661547259
16.0 125.074431701 43.5661547259
34.0 125.074431701 43.5661547259
166.0 125.074431701 43.5661547259
184.0 125.074431701 43.5661547259
-127.5 64.0662899644 64.3524189634
-122.5 64.0662899644 64.3524189634
-27.5 64.0662899644 64.3524189634
-22.5 64.0662899644 64.3524189634
-78.5 64.0662899644 64.3524189634
-71.5 64.0662899644 64.3524189634
71.5 64.0662899644 64.3524189634
78.5 64.0662899644 64.3524189634
-181.0 64.0662899644 64.3524189634
-169.0 64.0662899644 64.3524189634
119.0 64.0662899644 64.3524189634
131.0 64.0662899644 64.3524189634
16.0 64.0662899644 64.3524189634
34.0 64.0662899644 64.3524189634
166.0 64.0662899644 64.3524189634
184.0 64.0662899644 64.3524189634
-127.5 -2.76395396448e-14 71.39320225
-122.5 -2.73333779451e-14 71.39320225
-27.5 -2.76395396448e-14 71.39320225
-22.5 -2.73333779451e-14 71.39320225
-78.5 -2.77620043248e-14 71.39320225
-71.5 -2.71113333401e-14 71.39320225
71.5 -2.77620043248e-14 71.39320225
78.5 -2.73333779451e-14 71.39320225
-181.0 -2.80681660245e-14 71.39320225
-169.0 -2.755542255e-14 71.39320225
119.0 -2.80681660245e-14 71.39320225
131.0 -2.73333779451e-14 71.39320225
16.0 -2.84355600643e-14 71.39320225
34.0 -2.82215563648e-14 71.39320225
166.0 -2.84355600643e-14 71.39320225
184.0 -2.73333779451e-14 71.39320225
-200.0 200.0 0.0
200.0 200.0 0.0
200.0 -200.0 -2.84217094304e-14
184.0 -2.96917515044e-14 76.39320225
166.0 -2.63530415251e-14 76.39320225
34.0 -2.92476622945e-14 76.39320225
16.0 -2.63530415251e-14 76.39320225
131.0 -2.96917515044e-14 76.39320225
119.0 -2.73179151149e-14 76.39320225
-169.0 -2.92476622945e-14 76.39320225
-181.0 -2.73179151149e-14 76.39320225
78.5 -2.91366399921e-14 76.39320225
71.5 -2.96762886742e-14 76.39320225
-71.5 -2.92476622945e-14 76.39320225
-78.5 -2.96762886742e-14 76.39320225
-22.5 -2.89145953871e-14 76.39320225
-27.5 -2.84436009697e-14 76.39320225
-122.5 -2.92476622945e-14 76.39320225
-127.5 -2.84436009697e-14 76.39320225
184.0 65.1521592858 69.2330836535
166.0 65.1521592858 69.2330836535
34.0 65.1521592858 69.2330836535
16.0 65.1521592858 69.2330836535
131.0 65.1521592858 69.2330836535
119.0 65.1521592858 69.2330836535
-169.0 65.1521592858 69.2330836535
-181.0 65.1521592858 69.2330836535
78.5 65.1521592858 69.2330836535
71.5 65.1521592858 69.2330836535
-71.5 65.1521592858 69.2330836535
-78.5 65.1521592858 69.2330836535
-22.5 65.1521592858 69.2330836535
-27.5 65.1521592858 69.2330836535
-122.5 65.1521592858 69.2330836535
-127.5 65.1521592858 69.2330836535
184.0 127.194337323 48.0945098526
166.0 127.194337323 48.0945098526
34.0 127.194337323 48.0945098526
16.0 127.194337323 48.0945098526
131.0 127.194337323 48.0945098526
119.0 127.194337323 48.0945098526
-169.0 127.194337323 48.0945098526
-181.0 127.194337323 48.0945098526
78.5 127.194337323 48.0945098526
71.5 127.194337323 48.0945098526
-71.5 127.194337323 48.0945098526
-78.5 127.194337323 48.0945098526
-22.5 127.194337323 48.0945098526
-27.5 127.194337323 48.0945098526
-122.5 127.194337323 48.0945098526
-127.5 127.194337323 48.0945098526
184.0 -65.1521592858 69.2330836535
166.0 -65.1521592858 69.2330836535
34.0 -65.1521592858 69.2330836535
16.0 -65.1521592858 69.2330836535
184.0 -127.194337323 48.0945098526
166.0 -127.194337323 48.0945098526
34.0 -127.194337323 48.0945098526
16.0 -127.194337323 48.0945098526
131.0 -65.1521592858 69.2330836535
119.0 -65.1521592858 69.2330836535
-169.0 -65.1521592858 69.2330836535
-181.0 -65.1521592858 69.2330836535
131.0 -127.194337323 48.0945098526
119.0 -127.194337323 48.0945098526
-169.0 -127.194337323 48.0945098526
-181.0 -127.194337323 48.0945098526
78.5 -65.1521592858 69.2330836535
71.5 -65.1521592858 69.2330836535
-71.5 -65.1521592858 69.2330836535
-78.5 -65.1521592858 69.2330836535
78.5 -127.194337323 48.0945098526
71.5 -127.194337323 48.0945098526
-71.5 -127.194337323 48.0945098526
-78.5 -127.194337323 48.0945098526
-22.5 -65.1521592858 69.2330836535
-27.5 -65.1521592858 69.2330836535
-122.5 -65.1521592858 69.2330836535
-127.5 -65.1521592858 69.2330836535
-200.0 -200.0 -2.84217094304e-14
-122.5 -127.194337323 48.0945098526
-127.5 -127.194337323 48.0945098526
